# 3D point list with one line of data per point:
#   POINT3D_ID, X, Y, Z, R, G, B, ERROR, TRACK[] as (IMAGE_ID, POINT2D_IDX)
# Number of points: 371, mean track length: 5.0618541590326123
4915 -0.40026454670982992 1.946229542949975 2.1738420329776202 75 126 60 0.065071317100468651 63 648 57 663
4916 -0.3949311755338496 1.9705627908346661 2.1630326734723262 178 188 116 0.17752979554841442 64 551 57 664
4917 -0.3941924260802579 1.9739412339210185 2.1683002091564947 178 188 116 0.24308193595872207 38 653 57 665
4919 -0.42912204394220976 1.8622380200319824 2.1917412934558786 68 118 57 0.063687908247105005 100 568 57 669
4921 -0.70813550489041976 1.2285701189443927 1.9920231164754392 255 239 173 0.27472965243053965 81 461 57 697 50 1256
4922 -0.57096377154644939 1.5698216221279206 2.3230811882577451 176 170 102 0.1966736999665239 64 274 57 699 98 84 33 485
4924 -0.38862328700553322 1.9943239696670494 2.9776851109047624 97 123 61 0.58403525365754572 35 714 57 702
4926 -0.40060151096224639 2.054081631149931 2.9727912258360676 59 100 51 0.60717797652540129 35 742 57 709
4927 -0.19784161766171682 1.6964299722226819 2.2351627126031799 0 0 0 0.0970879272121008 4 507 63 488
4929 0.63105047796932279 4.4726919060820105 9.2785642386548979 73 116 56 0.44117509849584119 63 574 57 743
4930 -0.81308057724577998 1.4331903273110858 2.2998248609348453 96 72 47 0.39057595174907839 81 1303 57 747 50 713
4931 -0.74830840532203824 1.9044873205823809 2.2684476166133618 102 173 81 0.59670943447770586 17 552 57 756
4932 -0.82313433860618357 1.7193518156891803 2.3287200594187563 89 122 60 0.26551412306648303 84 826 57 766 50 727 61 786 44 802 76 697 52 568 19 461
4933 -0.85162478982927381 1.7407744956889646 2.3273165135426757 206 194 113 0.23165399588141447 64 278 57 770 54 15 50 739 61 1473 33 1028
4934 -0.8482973592990406 1.8163816954764977 2.3060331473317852 96 169 77 0.18818283499863528 84 860 57 776 76 711
4935 -0.89465543972074535 1.7408216459140387 2.3481658201933819 85 117 57 0.21888255218657043 63 745 84 856 57 783 9 329 93 290
4936 0.40403426596617903 0.7420348377088366 1.5958461605556677 190 185 191 0.1805484956937532 84 941 57 813 50 15
4937 0.17697093466525604 0.60032353204416611 1.5712532237360757 213 217 231 0.48210364486897328 63 802 57 838 50 49
4938 0.17697093466525604 0.60032353204416611 1.5712532237360757 213 217 231 0.48210364486897328 63 803 57 839 50 50
4940 0.48091258163226347 1.3057540956946558 1.9134444961536508 248 236 149 0.21865737450164349 84 241 57 867 50 826 44 910
4942 0.44967635870605649 1.2976902052184955 1.9166755486369063 242 221 132 0.14856441108416629 84 1061 57 877 44 914
4943 -0.0453793095895468 0.48728560445224872 1.5652995000995766 76 64 39 0.31108498136338819 63 126 97 1352 57 885 50 1375
4944 0.44947981384132824 1.2299049396515269 2.0743374857519012 0 0 0 0.17408206209698496 57 887 76 1440
4945 0.46126367527633999 1.1950085780896287 2.2354311210848774 123 128 139 0.86445664564484104 63 845 57 902 94 931 80 1027
4946 0.17829487389239138 0.95046988781693564 1.9098761058865701 160 183 130 0.34462215626294213 63 152 57 917 50 873 44 1475
4948 0.38794198528604146 1.6743273591471701 1.8013857798463269 255 253 241 0.28181987989367285 81 1714 57 929 50 116 44 173
4949 -0.13013629425360079 0.55455766847134158 1.7253105403825482 43 85 45 0.34759745141583392 63 905 81 915 57 940 44 919 84 990 76 840 23 39 60 843 94 48 18 46
4950 0.31322030186136363 1.653420102632591 1.8234728762155072 252 242 194 0.23418385470878753 63 926 57 943 50 871 44 981 61 1067 76 941
4951 0.32309008896097036 1.6486993428496839 1.8610225310396427 112 92 57 0.68149906133180216 63 221 57 944 44 1506 50 1393
4952 0.44948840886535857 1.5036338701995637 2.4447270753232351 32 58 22 0.39143670023244931 63 894 57 949 50 1402 33 738 45 205 9 526
4953 0.423137056639939 1.6189496847182365 2.3805711738529669 177 168 95 0.39798369375141412 63 1375 57 961 44 1540 45 879 9 89
4954 0.33669906466505639 1.9442482986818597 2.1117292305762367 102 86 72 0.42823478767518813 81 1250 57 994 60 1053
4955 -0.19409038459468397 0.70493520743994265 1.8676864550432968 69 133 71 0.12595978982201256 63 962 57 999 50 966
4956 -0.18660767537932244 0.82769403346905301 2.0188371192839827 77 144 81 0.14169947302143457 63 989 57 1029 50 1003
4957 0.10475375712839528 1.2492012275108659 2.5183456250344083 51 97 52 0.53822467163950882 17 1390 57 1032 98 1195 32 1218 8 1288 50 1015
4959 0.030208019890025403 1.2750493298813605 2.4843733050081545 65 109 56 0.13286566318203785 63 994 57 1048 8 1282 50 1035
4960 0.2554630055753872 2.234202630762685 2.1571682944712194 208 202 126 0.32526887527963277 63 1476 57 1051 50 970 44 1116 61 1238 76 435 52 289 45 470 41 122 30 399 49 405 36 16
4961 -0.010580771625511232 1.3272013645771845 2.4537904573602027 60 115 53 0.19835141256919953 84 437 57 1056
4963 -0.065455306266228724 1.1763622771803097 2.5489934715440943 48 90 44 0.59510094679944903 63 1464 57 1065 44 1124 33 1266
4964 -0.68042103621535499 1.0709217226920456 0.32117155084485766 150 161 98 1.2069961965023643 84 1559 57 1077
4968 0.047363152490386848 2.0065849217925207 2.1527988351765432 182 185 118 0.12033763086882966 81 1325 57 1101 98 812 44 434
4969 -0.1199083654101879 1.2899756267995475 2.4603081698652982 177 158 93 0.10131671313881405 4 909 57 1102 50 1087 44 1146
4970 0.076559032796367124 2.1644002008865293 2.1362959328735083 242 233 158 0.13023159999310352 63 1101 57 1107 45 16
4973 -0.15334209637416693 1.591448828304846 2.2784468105590019 63 99 54 0.08001684403308186 63 1105 57 1128 50 1091
4974 -0.27135216330204187 1.2338512921162579 2.5018810132206242 130 136 74 0.1123386002301628 63 1095 57 1148 50 1139
4975 -0.10253446260794194 2.0105634889149453 2.1449097038598732 74 125 57 0.0038466155218389274 75 1742 57 1149
4977 -0.25898727882758427 1.4686053482728598 2.3455281699975123 176 162 97 0.1684249015956536 63 1128 57 1160 32 759 45 652 30 529 36 524 17 1001
4979 -0.51154628554667614 0.87660288197584202 2.1016794912949952 94 131 66 0.16506893126856803 63 1557 57 1171 50 1158
4980 -0.51174319698053528 0.87715314063097682 2.1012770580982885 94 131 66 0.16131481105607243 54 744 57 1172
4981 -0.34959460929023917 1.1954207776258141 2.5324559247351619 93 120 59 0.11969541468577929 81 1141 57 1183
4982 -0.29152542370551643 1.5309923514301513 2.314015337174212 61 102 50 0.071722367387895267 97 1116 57 1187 44 1226
4983 -0.2915132086148523 1.5310972917293175 2.3138900032978187 61 102 50 0.085970135228454661 63 1142 97 1115 57 1188 44 1227
4986 -0.39902939075879668 1.3538747621572833 2.4281852719855395 58 96 43 0.20825969185398835 63 1158 57 1204 50 1190 54 786 44 1242
4993 -0.69382712438016725 1.1496078190198886 2.016277905054956 255 255 213 0.36144963148671089 63 1222 57 1272 98 604 32 721 8 937 50 1633 44 1714 33 1331 19 784 41 766 52 899 93 818
4995 -0.70700313200847786 1.1505431961185431 2.0215822423339169 136 99 62 0.23237485265277263 63 1226 57 1277 50 1255 44 614 33 949
4996 -0.40714188409266683 2.1458877850330151 2.157540520179241 97 178 86 0.3518910265763367 81 1966 57 1279 33 339
4998 -0.55474233248760008 1.9342848167626456 2.2186390854381597 81 146 67 0.052365498643253128 63 1249 57 1308
4999 -0.57815113434830845 1.9545780446088521 2.2053388585235001 100 172 77 0.051376114586064038 17 1159 57 1316
5000 -0.57815113434830845 1.9545780446088521 2.2053388585235001 100 172 77 0.051376114586064038 17 1160 57 1317
5001 -0.65750709890179093 1.8376684130730563 2.2291430838062998 97 147 73 0.099459331235222118 97 1616 57 1321
5002 0.53785878039550128 0.86523231494199582 1.6552717196710003 211 214 226 0.16483589483388159 84 1533 50 781 44 857
5003 0.27931276523446485 0.61033336288160078 1.4961042089534984 255 255 255 0.44486256763306414 34 1433 57 1368 40 868
5004 0.10549534116273443 0.51687201524299664 1.4787785229866175 63 43 25 0.31550282933264179 63 1303 84 1516 57 1381
5005 0.30054723841845982 0.89108355812797291 1.761607658671414 186 200 149 0.16011919185241608 38 1497 57 1397 44 1446
5006 0.29797840895383976 0.9146630918376939 1.788038321918737 177 203 144 0.20469491308002699 63 1314 57 1402 50 1356
5007 0.008881286260960821 0.52002833009990868 1.5520060383042029 93 93 60 0.63024368989336099 17 1276 63 1327 57 1407 50 1365
5008 0.0034890098294822064 0.67070879048101251 1.6907344358849004 183 183 134 0.23338660131565225 63 1350 57 1431 50 1392
5009 0.3812365346726585 1.5362398083656039 1.8283469747926002 86 149 65 0.14134662522909419 84 1683 57 1435 50 855 61 1030 60 967
5010 -0.020007322720820994 0.65174026811972496 1.6956298801362875 173 171 123 0.098428699563724908 63 1357 57 1436
5011 0.34983141300628029 1.5358193885738742 1.8535088421446202 82 118 50 0.65297433128928861 81 1677 84 1687 57 1438 50 1383 44 1484 61 1637 33 1092 36 11 62 24 20 36
5012 0.42913387249837925 1.3134202846631848 2.4109146408584969 141 126 108 1.2880560845874904 63 154 57 1441 50 880 44 233 76 980
5013 0.36201241273159712 1.7223327550534018 1.807705519501027 189 177 160 0.12446303862593934 63 217 57 1442 50 864
5014 0.43214328688347148 1.6944493614960863 2.3266229371445486 180 183 112 0.37322870532016222 84 1193 57 1465 61 396
5015 0.41670042551960201 1.7057548789180035 2.3322134178194469 70 98 45 0.34170290364166239 63 1387 57 1468 50 1410 84 1736 44 1030 45 854 49 757
5016 -0.16401553248580489 0.65324494410854761 1.8001595450783605 67 125 63 0.07366598612621586 63 1400 57 1475
5018 -0.2727009650247722 0.56388535302868548 1.8548371432310531 53 111 61 0.36217189465217414 63 968 81 940 84 1590 57 1507 61 1586 76 1422 60 1384 80 1401 23 1325 53 1234 94 1274 18 1202 52 1454 19 1320 33 1511 41 1277 96 1142 21 1046 71 1124 15 1122
5019 0.054782557733751042 1.2040880319384224 2.5326528369622299 85 108 56 0.15666908835699941 63 1436 57 1527 50 1480
5020 0.0018830690493690332 1.2851719083726501 2.4717974466143531 56 112 52 0.24010844976858067 54 1344 64 1340 57 1546 98 1158 32 1191 8 1279
5022 0.28682727844584288 1.8900990041096861 3.3518375947200525 48 90 46 1.3522745107714242 84 1848 57 1576
5023 -0.1365734041574298 1.2324354873655325 2.498189163408203 140 136 77 0.29831444779242616 54 1301 57 1577 44 1633
5024 -0.13488496380705836 1.2955459892783439 2.4566153718240238 61 104 45 0.1859579809485381 54 1303 57 1583 50 1519
5029 -0.47405579792366792 0.81591505483937232 2.1446689793911209 255 253 234 0.13131195740719423 63 1537 57 1619 30 957
5030 -0.29237051739319225 1.0867373277222521 2.6069986984623501 106 115 61 0.54534840494271353 81 1683 57 1620 8 1327 32 1206
5031 -0.18569444085350073 1.6616933152930873 2.2498155963913185 57 96 50 0.11260968608739008 63 1552 57 1621 8 1142
5032 -0.1790399935547265 1.7850761810227838 2.2021490070355112 55 92 50 0.047429916112125318 81 1836 57 1626
5036 -0.11889650711129689 2.2078522974774555 2.1394078159285201 98 171 77 0.50858859890088781 63 1591 57 1651 44 1690 7 1532 50 1520 78 1140 74 1089 46 1035
5037 -0.35818880337695347 1.3042032358615001 2.4605796858653588 60 102 45 0.049562357421083059 81 1176 57 1657
5040 -0.16827034410951186 2.2416023696055269 2.1412572852332858 115 156 75 0.61345772018375966 4 1581 57 1675
5043 -0.32365817386591861 1.7936776377421733 2.1998948488586527 58 101 52 0.091312976313844343 4 1474 81 1865 57 1680
5044 -0.42316685958016076 1.5326838309352355 2.3244916072193509 64 100 49 0.21077860402527454 63 1606 97 1111 57 1693 44 1716 33 921
5045 -0.41736859578408969 1.7679622666218269 2.2207349487739312 234 216 134 0.036412268248403629 34 1728 57 1711
5046 -0.5886113922716667 1.6576856831948152 2.2923399952086339 162 167 100 0.91826650888991246 38 1227 57 1744 61 1854
5047 -0.17969964038687583 1.7862873564350126 2.2029296902878261 0 0 0 0.23954984361989162 12 1342 64 1477
5049 -0.66099746291836703 1.5457902798244356 2.3590190942542333 72 112 51 0.21588711593766274 84 1890 57 1759 61 1856
5050 -0.61466958692507145 1.9232981025131664 2.2191143071905475 225 222 141 0.47519031419309393 4 1469 17 1563 54 1184 57 1765 50 1656 45 568
5052 -0.70179826496156417 1.8302919249632466 2.2525161646862601 86 147 69 0.13678858245771991 59 1795 57 1778
5053 -0.75949613011126427 1.6411758454753815 2.3500196725990512 219 203 115 0.32715921248857099 54 1149 84 1423 57 1781 32 1007 50 1683 44 1808 61 1427 76 1979 33 1391 66 1489 94 1458 18 1384 52 1381 19 1441 41 1384
5054 -0.78834002885085319 1.545405650020315 2.3391856750627307 239 233 237 0.68797217076840089 63 1926 84 2248 57 1782 50 1687
5055 -0.81293181798503378 1.7233645235680193 2.3217752889413616 72 115 54 0.4132941125334248 63 1691 57 1791 44 1824 61 1913 76 1713 66 1501 94 1088 52 1390
5056 -0.77926453041044641 1.8943190700561041 2.2744964770924798 94 170 77 0.36306396499757204 63 1694 57 1794
5057 0.22179959256218784 0.71741522995039442 1.6408737721880591 76 137 70 0.058137909585716088 63 1715 57 1818
5058 0.057259733197009562 0.64262341694657132 1.6525426987555838 134 152 96 0.10006356299467153 38 1938 57 1834
5060 0.42675782880948282 1.2523409483829808 2.3053300818465581 158 159 166 0.15411327464891747 63 1343 57 1847
5061 0.3803217172542756 1.8207972301339623 3.3419053701536408 56 97 49 0.97947393562320118 84 2418 57 1896
5062 0.035234108403772085 1.8393424474847326 2.1986937443744496 63 111 55 0.17364085430044565 100 1975 57 1914 65 1744
5063 0.20340766542648586 2.397938245326269 2.2609911606099407 0 0 0 0.22021248259309106 63 2030 57 1920 50 1798 44 1977
5067 -0.28690764120298756 1.2281105443705476 2.5081032685985098 54 101 42 0.19822536423759315 4 1636 57 1944 50 1860
5069 -0.31246881608340932 1.595558205579851 2.2831863328116584 209 197 119 0.16522096353751578 81 2162 57 1954 8 1445 50 1859
5070 -0.27824293295319652 1.893593918334737 2.1721056884596051 151 160 99 0.033815151738585056 59 2135 57 1958
5071 -0.35380214061797494 1.6255919762328692 2.2703576250730877 53 91 48 0.27291155586097987 84 2211 57 1961 8 1440 50 1867 61 2126 33 1552 30 902
5072 -0.39351092756410161 1.5488483569426335 2.3078664406993066 217 202 123 0.23851032996046587 84 2207 57 1963 61 2124
5073 -0.44383766069339342 1.3236139750440667 2.4497238563870445 55 96 43 0.13729196848346192 97 1826 57 1966
5075 -0.35739344848583654 1.8611974677067147 2.1827872660378764 172 193 110 0.43239268131478087 59 2130 57 1973 44 2026 81 2203 33 1249
5076 0.071367019805930854 2.1807695036965771 2.1344831417804149 98 175 93 0.096406023850943726 59 2170 100 2032 74 1290
5077 -0.36411994999565905 1.9091759434344704 2.1750709255222818 67 117 55 0.11129865263522877 63 1889 57 1978 44 2031
5079 -0.40073844838542932 2.2086559581331602 2.1763418760690869 85 140 65 0.27251391891728655 63 1656 57 2000 50 1884
5081 -0.59652583493123579 1.6324643575182269 2.298506875604307 60 98 50 0.1788534531571645 81 2190 57 2005 44 2064
5082 -0.60533286181427348 1.8848271427298686 2.2198198941645844 222 214 136 0.10500291567258968 38 2144 57 2013 61 2183
5084 -0.8630705090763553 1.8708594487913106 2.2991813811088937 106 171 80 0.36399586411362472 63 1703 57 2029 50 1933
5086 0.10226617446909245 0.55363127496071474 1.522611043697246 91 75 54 0.42869443228607201 63 1716 84 2028 57 2048
5087 0.25857730500090642 0.93903754242499138 1.8324886594785605 167 195 141 0.24136983798664713 34 2337 63 1961 57 2054 50 1955
5088 0.37880004054949423 1.702410111782567 1.8070901540231969 233 187 134 0.50494235171099477 81 2114 84 2374 57 2062 50 1738
5089 -0.011461007230267302 0.76634856327726342 1.7990954614618153 75 148 81 0.55664381293727239 63 1973 57 2065 50 1963 44 2136
5090 0.05330849740114537 1.4333050087734647 2.3788965443526862 38 100 49 0.51010962701178109 63 1999 64 1872 57 2100 77 1053 98 1172
5091 0.12792847890823633 2.1994019094481345 2.1268465957314571 247 244 164 0.23615651049317932 63 2027 57 2115 50 1996
5092 -0.17072506092804446 2.1157441898946643 2.1345521148774815 220 213 140 0.16883426805269508 84 2446 57 2144 50 2022
5093 -0.23381102717644411 1.979811174235165 2.1535763182390641 218 209 136 0.2586600444560716 35 2275 75 2020 57 2147
5095 -0.36842994958335828 1.5252944350656708 2.3226336486755903 60 101 49 0.076030154377742881 63 2061 57 2152 50 2046 44 2213
5101 -0.41229114613232742 2.3110149815653123 2.2990718811051423 0 0 0 0.28343283416754533 63 1919 57 2177 50 2062 4 1782
5103 0.11378048184013884 0.91175491458203739 1.8942948071401753 150 177 123 0.082087015706126074 63 1968 57 2219 50 2124
5104 -0.17271832716852958 0.67857762894124385 1.8396226632633355 157 163 115 0.30193526000737864 63 2135 57 2224 50 2137
5105 0.32322295947142493 1.8482982674384549 2.0922630897791992 230 222 226 0.63491545298399832 84 2543 57 2226 44 2308
5107 0.11527650735288693 1.1594175029019471 2.4536161268847985 103 96 64 0.40806170373366718 63 2136 57 2230 50 2147
5108 0.0056044025069001595 2.1532378621330124 2.1337816839397794 221 219 149 0.17781573898699304 35 2451 57 2261
5109 -0.25323819079428322 2.0904802922192562 2.1516676682566542 89 154 69 0.084718585665879448 63 2068 57 2284
5110 -0.5053131882709061 1.8136745256799252 2.2171598521763984 59 109 52 0.25772031542875101 81 2536 57 2294 50 2182 44 2360 33 1824 9 1212
5111 -0.40233404560613323 2.259751387924573 2.173478210247004 0 0 0 0.0066262545060856992 17 2018 50 2175
5112 -0.73170762967310488 1.8430729788782305 2.2617725580290937 230 218 135 0.54710887101252592 63 2203 57 2304 33 1845 41 1521 93 1161
5113 -0.91021195272723354 1.7233337059817699 2.3571482083321689 63 106 46 0.81185965859934162 63 2208 84 2593 57 2310 50 2200 44 2437 61 2594 76 2364
5114 0.27913674334201094 0.81819709906567162 1.6925813912998311 181 202 141 0.21351523670904371 63 2214 57 2320 50 2109
5115 -0.018822722848388696 0.55654086032280925 1.6559850147151087 43 83 45 1.0651726394743921 63 2119 57 2323 8 1643 50 2214
5116 0.28820661040343487 1.7657728551542349 2.2674883778486632 51 93 42 0.67807037081275567 63 2227 57 2331 50 2135 44 2318 33 1796 41 1283 9 1180
5117 0.29142790020595744 1.7700762160407815 2.2707285245423772 51 93 42 0.98215908237404381 63 2228 57 2332 50 2136 44 2319 61 2477 76 2075 33 1797 52 1488 19 1117 41 1284 9 1181 93 982
5118 0.058151022360768675 2.1404904171642123 2.1251676079872714 213 215 135 0.47582155825136607 63 2247 57 2343 50 2153 33 1802
5119 -0.58662535636561997 1.7577969035257721 2.2384932548208885 126 140 81 0.95975717335027944 17 2159 57 2367
5121 -0.58974580838729285 2.1813501116803948 2.2999270439714077 197 180 168 0.46655238071832467 63 2198 57 2371 50 2301
5123 0.25526755323799427 0.67413817000169673 1.6092075176729912 43 72 37 0.78075344326862128 63 2307 57 2380 50 2268 44 2442
5124 -0.1562663545609746 0.88831837542733338 2.1068585878627353 143 171 117 1.072115184305916 63 2287 57 2391 50 2283 44 2514
5125 0.39849140455886228 1.8280639273180999 3.3089816239945189 50 95 48 0.58847926154741703 84 2682 57 2392
5126 0.099950151649941102 1.9635963104183611 2.170581628993272 220 214 138 0.59716493376847601 63 2295 84 2684 57 2393 98 1769 50 2282 44 2465 61 2568 33 1890 45 1418 49 1210 36 1147
5127 0.11209260441066336 2.1449627843158909 2.1342626144641264 84 155 70 0.81578142015543975 63 2296 57 2395 50 2225 44 2407 33 1800 9 1046
5128 0.11343605895533755 2.1448787435434258 2.1350948746874603 84 155 70 0.71509102897841126 63 2297 57 2396 50 2226 44 2408 33 1801
5130 0.30320712183155463 1.4061687313254945 2.4484247020144356 91 123 71 1.6232267442807391 63 2315 57 2426 9 1367
5131 0.31236381440700567 1.7008731987483736 2.3042553383255804 61 109 55 0.093489681980498937 63 2319 57 2429 50 2318
5132 0.28482590456404744 1.6170493908338486 2.3358590062486542 171 167 105 0.41061721068794915 63 2317 57 2431 50 2319 45 1454
5133 0.13763168956613289 2.1039350385127698 2.1464419521403828 88 157 74 0.3218098695214377 63 2327 57 2444 8 1771
5134 -0.074360232426390033 1.3801545512309108 2.4031240599079098 64 108 49 0.43625908885754189 63 2382 57 2445 32 1793 8 1852 50 2337 44 2527 33 1996
5136 -0.59532637497194008 1.6919538884570158 2.2705480794953141 80 109 58 0.70606563737297801 81 2798 57 2531 50 2407 44 2606 33 2007 52 2059 19 1882 41 1776
5137 0.39492185428136128 1.5978066521584033 1.875587404639643 220 210 208 0.83334262595961361 63 2361 57 2544 50 2419 44 2629 84 2847 61 2802
5138 0.36091807527997677 2.1357331119906298 2.1732454398469843 0 0 0 1.7553403415942601 57 2546 50 2421 61 2796 76 2555 33 2019 52 2093 19 1930 41 1792 66 2302
5139 0.49608231779461193 0.77333443779824595 1.6092178586954324 188 187 197 1.4177894022093869 63 2427 81 2830 57 2553 50 2430 76 2550 60 2515 52 2087
5140 0.18312555332687036 0.6295891639326171 1.6032377235627557 46 97 56 0.17736012128033649 34 849 97 864 75 889 81 877 57 60 59 32 38 43 100 47 84 52 50 58 44 48 61 44 65 51 83 693
5141 -0.31609705765161089 1.819877034393742 2.1919283557757203 39 68 35 0.19941893831800878 34 1749 97 1624 57 1679 12 1321 64 1469 44 1709 81 1874
5143 -0.79083912995584438 1.6798812658282607 2.338696392843028 89 142 64 0.22705922001261022 54 22 63 725 57 1337 81 692 38 581 98 32 8 239
5144 0.01031596604661034 0.47689065802869507 1.5330123183042468 105 76 50 1.1832438584702389 63 1721 57 1824 81 1490 84 929 4 1810 17 1654 33 1458 54 1757 8 1646 32 1585 98 1576 97 820 45 1404
5146 -0.0035915411215850413 1.7099109186769885 2.2431961262039652 213 201 123 0.4267104351897234 12 1357 4 1733 97 1905 64 1728 63 2017 45 1104 77 822 45 859 51 1140 69 586 100 1637 35 2059 49 753 50 1811 59 2294 87 1633 34 2056 57 1567 81 1793 100 1957
5147 0.031120051368041593 0.57796408045238801 1.6347663342532941 54 109 60 0.20715229346392 4 782 17 754 97 844 34 832 75 859 35 912 54 937 63 855 57 880 81 894 87 846 84 971 50 854 44 893 61 909 76 815 33 703 66 51 41 38
5148 0.40144701531180871 1.6407268259997136 1.8243788578634879 252 250 244 0.35156880110188193 4 1139 17 1566 64 685 34 1710 54 619 63 896 57 924 81 1128 84 341 32 761 8 88 50 113 44 166 45 28
5149 -0.054850260301679749 1.7807937032712731 2.210914086144609 72 117 64 0.18698783752751585 4 1501 35 1744 12 1365 17 1544 57 1590 64 1490 81 1812 98 1138 32 1067 8 1110 50 1494 44 1636 83 1324 51 813 77 799 49 747 36 451
5151 -0.88344275583469145 1.7678435520824549 2.3312836297255708 95 159 72 0.2081860479637499 17 460 63 748 57 1354 64 286 81 1423 44 1403 19 967
5152 -0.10275607110942335 1.63669359406923 2.2635569906534374 55 94 50 0.25993552532439285 4 1453 34 1693 64 1449 75 1646 35 1710 12 1324 81 1785 54 1316 38 1170 63 1518 87 1113 84 1794 57 1119 17 1067 97 1162 98 1134 32 1096 8 1150 50 1070 44 1637 61 1755 76 1099 83 935 45 881 77 803 30 734 51 828 49 508
5154 0.047099804959972381 1.9154953910092702 2.1755462141818933 174 180 109 2.1030497307845435 54 942 57 1091 64 1137 57 1086 61 517 40 748 7 947 40 745 7 945 88 596
5156 -0.68179801030176712 1.6400201785062309 2.316955670096974 203 203 113 0.42457403995841109 75 1947 12 1544 57 2185 4 1873 17 1965 97 1884 81 2198 32 1487 8 1581
5157 0.030842307664650348 0.63455059736173403 1.6609133213248612 171 172 121 0.61672899583366425 97 2250 63 2217 57 2322 81 2470 38 2390 100 2314 87 2260 84 2499 50 2121 44 2284 61 2448 76 2200 65 2024 60 2188 80 2152 26 1962 23 2047 33 1787 66 1971 41 1442
5159 -0.054698196055558944 1.8123438181506162 2.2028319589271761 58 100 53 0.026606187423231287 63 442 57 432
5161 -0.21600167221570679 0.64673656547545055 1.8351990682847796 67 127 65 0.046089351016722513 63 1413 57 1492
5163 0.13616494448241798 0.81677714795249357 1.7532832364631601 83 160 88 0.12567063917155055 63 1729 57 1838
5164 0.045556933589757945 0.7255396780884652 1.7201537003968763 70 140 76 0.3197027464303917 63 1735 57 1843 50 1746 33 1110
5165 -0.38753516414017425 1.3366816929863161 2.4379526574930903 53 96 42 0.15828694628029827 63 2051 57 2148
5166 -0.87834962064503919 1.5018559570890682 2.3579738825237033 122 90 60 0.18234522796802546 54 4 64 844 98 6 32 654 8 855
5167 -0.87094048746569797 1.5157484550392242 2.3562741189923093 82 59 38 0.15257533561927353 54 6 64 192 98 9 32 83 8 342
5168 -0.87758060326639298 1.6752012963418146 2.3783877439888923 65 112 49 0.1775190105652186 54 7 98 14 45 252
5170 -0.79072621737532378 1.6784722972105115 2.3379130093364844 93 152 67 0.24048518412638051 63 726 98 31 19 453
5171 -0.57365523340481106 1.4745088239709658 2.374853339358447 96 140 69 0.052391939114176826 81 532 98 86
5172 -0.56092272520551689 1.4203669907940122 2.404415946587358 183 176 98 0.24077409902961888 17 306 98 89 32 225 84 615 44 668 61 609 76 569 93 243
5173 -0.52445467778147259 1.5217281732063113 2.3396641029530261 210 194 114 0.13926492009829242 17 358 98 99 69 84
5174 -0.41547240422914405 0.79092588737356495 2.1620263582895745 125 107 88 0.10984726912738041 12 36 54 133 98 117 32 473 8 593
5175 -0.073835683741703725 0.63473160466199885 0.38920270800296192 160 145 82 2.7250514181329342 54 346 98 118
5177 -0.42227991217759492 0.90681726278750607 2.4626218595413678 202 203 214 0.47599023446862848 17 1322 98 144
5178 -0.40519154752505115 2.2043999531043874 2.1726502251161564 69 111 48 0.95364367688638974 4 1156 54 186 98 146
5179 -0.4235944760977553 1.2607882414736138 2.4931668947098187 88 116 56 0.098448310288593632 17 245 98 148 41 376 49 325
5180 -0.28025809478883529 0.51384641583128132 1.8171657137768216 213 215 229 1.1553878381813119 54 800 98 150 8 640
5181 -0.4562021044346562 1.9771013158003066 2.8122273000446052 202 193 114 1.1097905187026553 59 744 98 169
5182 -0.34563275506215202 2.2414354597615822 2.1746027293912298 176 187 117 0.38220781840649448 54 219 64 1155 98 173
5183 -0.31936898748907994 2.2177399680422187 2.155166297517245 123 149 70 0.40372343104304792 54 236 98 181 32 9 8 15 33 305
5185 -0.019191194435298466 0.69549208718594091 0.57561296897372749 193 168 100 0.9208246757627857 64 316 98 184
5186 -0.29404509365819553 2.2238983667414574 2.1501261191646206 78 118 52 0.1648720931244532 54 828 98 188 32 10 8 11 33 295
5188 -0.30110609456207432 1.2753531533458071 2.470486630757164 53 99 44 0.20871542251483371 54 231 98 194 77 173 64 204 30 274
5189 -0.30196919595449756 1.2768613411520726 2.4741742150065686 53 99 44 0.18730052948832662 54 232 98 195 77 174
5191 -0.26406482979436346 2.2305624532893855 2.1474065221881986 73 121 51 0.7053241623063361 54 280 98 204 8 9 33 285 45 22
5193 -0.26468507088417775 1.0962158551793861 2.5993701412157191 181 170 94 0.15673007800862548 54 255 98 216 8 542
5194 -0.22642858062288898 1.5419249675432942 2.3057453702879624 85 111 60 0.092141229800497798 64 354 98 217 45 213 75 457 49 188
5195 -0.23247278018648188 1.3873542475181779 2.394556327275938 53 94 43 0.031577566990973485 63 450 98 219 77 177
5196 -0.19001734775256141 1.7968713953147464 2.1965721546300592 61 106 57 0.1370083796021915 81 574 98 229
5197 -0.08586587987419618 0.51302653072851123 1.6100696378186412 210 210 220 0.39018918348177051 54 340 64 31 98 231
5199 -0.16751978030122253 2.2432434518111957 2.1429375114728444 91 140 60 1.0059898229606716 64 702 98 235 32 21 8 2 33 250 19 279 52 922 77 95 45 17
5200 -0.16180380976782227 1.6480983381254843 2.25324778354411 213 198 121 0.062774878542230669 54 324 98 237
5201 -0.14799912508560611 1.7643090773278411 2.2085820054152649 236 219 135 0.23900244725211378 12 430 98 240 17 534 100 526 49 107 88 176 43 56
5202 -0.15384762016069695 1.4402694681396162 2.360905852411082 167 150 89 0.067511487056447703 63 421 98 242
5204 -0.15310160357118971 1.2808936971940517 2.4640471615548893 55 101 43 0.093879958790004825 4 238 98 251
5205 -0.10102749998772974 2.1739564719158802 2.1316764722563617 110 188 93 0.28826759560533444 34 772 98 258 78 430
5207 -0.11814694778492617 1.3957381654571726 2.3885471590093523 127 123 69 0.11055707149075986 12 291 98 261
5208 -0.11613340459405193 1.3616259853393995 2.4109213118932393 178 156 92 0.10119420693103998 57 408 98 262 51 229
5211 -0.063229151794587865 1.3912756076022335 2.3863400759334223 55 92 44 0.034110500740422919 63 365 98 282
5216 -0.03467996290826466 1.2203943010371689 2.5057704199239526 56 87 44 0.15480051703051034 54 378 64 233 98 304
5217 -0.10398059455620974 2.0246075997220969 2.1418365001211139 0 0 0 0.087278582588207643 34 708 100 622
5219 0.016876933490430644 1.3252136270766135 2.4456505114334175 146 141 83 0.041591020477813129 12 317 98 325 83 286
5222 0.077859432473517218 1.7049872154069781 2.2555406845310224 194 183 113 0.12331770910418643 54 439 98 345 32 256 40 320
5223 0.092927962407910875 2.0195673344086003 2.1579468649769891 186 186 113 0.011408281902074584 64 683 98 348
5225 0.15343125892741349 0.50385201570377802 1.4699885795131595 45 29 13 0.21463852583838672 54 514 64 92 98 369 32 959 8 604
5227 0.13524264534221767 1.560463229267276 2.3353491956024102 136 133 88 0.2285415538093015 75 511 98 381 77 309
5228 0.17208497807694167 1.8150815450405569 2.2294543764755295 55 89 40 0.052411052000604676 63 318 98 389
5229 0.18118973734323793 2.0799257562702445 2.1671072456515739 68 109 54 0.15301569010003763 17 686 98 390 8 38 77 235 51 140 43 102
5230 0.16764319063618857 1.4049950206862778 2.437659475818307 147 141 98 0.12976455500717027 4 398 98 400
5231 0.17299976221246385 1.4977156207031668 2.3739186762279116 145 141 92 0.12897321339169526 54 497 98 402 32 376 8 312 51 307
5232 0.17768302380617976 1.5529080669937465 2.3522755970481839 114 118 77 0.046597189833134864 64 470 98 403
5233 0.19742613351167135 1.8540601338165144 2.2205401457742933 172 172 96 0.074677968563983996 38 557 98 407
5234 0.19279494779441519 1.6964956646072089 2.2769176165278457 79 100 52 0.15207080872009549 17 511 98 409 8 187 51 257
5235 0.22877712772818146 1.3210777325091139 2.4799606294786956 55 96 51 0.15612526668494542 54 517 98 433 8 409
5236 0.22883169136578449 1.3212506757832114 2.4784496048260376 55 96 51 0.13233080552222037 4 358 98 434 32 480 8 410
5238 0.27570742335511567 1.6908692707559307 2.3000746093720235 64 98 51 0.19805971289514979 54 552 98 447 3 186
5239 0.31033130641078421 1.807472294810381 2.2635868697856232 51 81 36 0.43119555175156976 75 676 98 459
5240 0.31033130641078421 1.807472294810381 2.2635868697856232 51 81 36 0.43119555175156976 75 677 98 460
5241 0.28365887373879178 0.98510177029506885 2.2277402204988626 164 187 130 2.0748832388599627 35 1055 98 461
5242 0.30694533399640261 1.3347078721274261 2.507026329406211 169 163 95 0.046011377962887581 64 371 98 467 32 498 47 112
5243 0.48358089005380478 0.97630498671172739 1.8891441802636133 156 155 168 0.17166876338850021 54 654 64 363 98 569 32 541 8 438
5244 0.51459387638332721 0.82905711419942552 1.6290449317668865 231 233 249 0.18243848035278531 54 681 98 586 32 572 8 474
5248 -0.68497733077052625 1.3537085756333873 2.2951283905626259 78 118 46 0.76520672828971792 4 192 98 628
5249 -0.65576096420387897 1.7025735114033711 2.2804149754751979 93 152 72 0.083417086625089218 17 1064 98 636
5250 -0.64616377561734406 1.6135866358867506 2.3294467968109038 91 151 70 0.27485731226169924 54 730 64 909 98 642 30 454
5251 -0.64275090620908171 1.5485136100692591 2.3623484908646435 186 183 105 0.18161169593859119 54 1172 98 645 8 1218
5253 -0.51280196240663756 0.9041147464298569 2.0869069004910559 246 225 137 0.051637603277317173 57 1173 98 654
5254 -0.59699131500020086 1.5126828951858005 2.3566457778035437 209 193 115 0.018174867223658679 57 1293 98 657
5257 -0.43700196290847643 1.55367388552702 2.3147226606423401 79 117 59 0.073592571145583582 64 931 98 687 45 639
5258 -0.45337490808068726 1.2221598918587708 2.5229082964891378 74 114 52 0.1777745174184944 63 1160 64 818 98 689
5259 -0.35183261213327266 1.3766985372841345 2.4044582434840933 186 163 97 0.12317735121042955 54 801 98 702 32 775 77 527
5260 -0.29873208938624407 1.5934421835038401 2.27150508230757 225 205 120 0.33301400120306696 17 436 98 708 77 119
5261 -0.29272161055618778 1.2669828266331766 2.4793374894356051 45 100 42 0.034933483807988837 12 821 98 722 77 551
5262 -0.23333783243240486 1.6967053288118388 2.2304206863790403 68 105 57 0.085859649949967864 54 838 98 733
5263 -0.2394016957251498 1.5422400471215019 2.3049474396798222 198 177 110 0.27153413030944162 97 1125 98 734 83 282 51 119
5264 -0.23752555705214209 1.4088821384040335 2.3740049028213073 57 98 45 0.13121860406262295 64 914 98 735 83 863
5265 -0.21993919493786326 1.4032838413604645 2.382940495956968 74 99 49 0.14882124429202412 57 467 98 738 77 550
5266 -0.19494588748725786 1.913640065902702 2.1612773817967028 87 142 71 0.074348304605885762 54 848 98 743
5268 -0.17307737886812494 1.8911050395567421 2.1691377573810184 75 131 63 0.26864718654389041 12 983 98 749 61 1266 83 973
5269 -0.17762925586309891 1.7075380978782035 2.2325341451665235 57 99 55 0.10890916469612033 75 1213 98 750 32 706
5271 -0.14561968633315137 1.2728750773950672 2.4713405898035052 193 168 100 0.18044007623837205 4 905 54 865 98 761 32 846 12 855
5272 -0.025868974965611986 0.5956098429411486 1.6704702238305953 154 151 106 0.14663081820130094 54 1336 98 767 32 1249 8 1351
5275 0.038023811045554454 0.46021560221836266 1.5232033174447597 230 195 139 0.22967759303331384 54 418 98 787 32 957 8 1035
5276 0.00086339511054300832 2.2021878763575846 2.1315383965234282 225 221 150 0.17516268230212267 17 1255 98 793 8 6 32 37
5279 0.062634005856568281 2.2032696594812595 2.1313208493531581 221 220 144 0.11715527598393261 4 1196 98 822 65 1555 100 1768
5281 0.075203841473419408 2.0023054297248275 2.1561124922461561 65 115 53 0.12110419751307587 35 1399 75 1316 98 831 83 1037
5284 0.14996148053301508 0.49590873207020375 1.4727196437654972 224 203 174 0.36486644324967998 64 770 98 852 32 961 8 1024
5285 0.23742832230672495 0.54405767232274882 1.4936687343972181 253 251 233 0.41113993762552486 54 568 64 131 98 889 32 964 8 1345
5289 0.29029633544957401 1.5602826343367109 2.3685813222813805 170 157 100 0.075705488911548019 81 373 98 907
5290 0.32259182252485341 2.154964163175686 2.1858652757635584 254 254 254 1.3257545699628503 34 1845 97 783 98 909
5291 0.55411858580913453 0.86326671245534325 1.6822279636069946 186 184 191 1.5604916228400743 54 1130 98 977 8 460
5292 -0.53882079668690819 1.7621128193123889 2.2454143419765349 93 157 75 0.10331434326114536 54 1192 98 1014
5295 -0.37380834628489562 2.2222000358695153 2.166493057478152 188 195 123 1.2681682282180744 54 1709 98 1054 8 1539 33 1536 41 723
5296 -0.36625880425092044 1.3858896655738147 2.4022113782671397 168 153 91 0.11308058429640105 17 1421 98 1057 32 1119 83 825 49 841 4 1340
5297 -0.3249620188283131 1.7937050482249228 2.2024259434644642 84 145 69 0.17575964138406935 63 1608 98 1063
5298 -0.35765613074600328 1.1451274438296859 2.5697125755102368 72 95 44 0.19144667601924611 54 1239 98 1065 88 101
5301 -0.27729264198417408 0.98155533456080757 2.4528680401641565 179 176 184 0.70319869777678579 54 1831 98 1079 8 1521
5303 -0.236707010337733 1.6393757542691385 2.257022870249259 70 106 57 0.28292535275970887 84 1825 98 1092 32 1074 61 1784 30 727 77 771 51 787 69 580
5305 -0.045029461728606376 1.8227108397762921 2.1940025488418415 230 213 134 0.21020931336697735 59 1749 98 1139 32 1058 83 1331 77 794
5306 -0.044230596750522037 1.7622029299300908 2.2146983790521104 239 226 139 0.20427733154980401 34 1727 98 1140 32 1073
5310 0.09322590427932699 1.8378645500068274 2.2063206367030608 60 100 51 0.026053676186267707 4 1527 75 1719 98 1176
5312 0.15735053351331621 2.2377675414546072 2.1039128333950243 190 203 116 0.092067039257632599 54 1386 64 1562 98 1199
5313 0.18532606512794447 1.7992821699110684 2.2482976026400738 54 88 39 0.11140727252217592 54 1396 98 1216 8 1108
5314 0.17378644971755375 1.4600457734894348 2.4064418773122136 43 90 49 0.059017490013015358 4 1427 98 1222
5315 0.21972257970833037 1.2764250306563882 2.5270384205847085 190 179 107 0.17853310280034851 54 1403 64 1365 98 1239 32 1227 8 1283
5316 0.21966198111486857 1.2795142483679245 2.5369818576315009 190 179 107 0.083058134667689812 54 1404 64 1364 98 1240
5317 0.25840492238554524 1.5636382246624083 2.3516627660430962 50 98 49 0.14916409528595714 17 1494 98 1246
5319 0.37915168999891957 1.3286398234991676 2.4969040143810082 63 111 54 0.65915605021067869 54 1441 98 1276 8 1262
5321 0.4738191125506438 0.86297540050781762 1.7260814877925363 165 196 141 0.32613317930086161 64 1382 98 1300 54 1482 8 948
5322 -0.81868566585617775 1.5130159754928727 2.3256254421753537 255 255 253 1.5029218657674555 12 1709 98 1310 83 1185
5323 -0.66753471968374145 1.1534302189475349 2.0085931471184626 252 240 223 0.085127747551984892 54 1501 98 1313 8 1493
5324 -0.59865583258784216 1.2875770555586632 2.4971373827813541 69 114 50 0.30676531142608815 4 1626 97 1820 98 1334
5326 -0.52547267503766204 1.5525077416856627 2.3223432996482574 122 142 75 0.16632456122794756 54 1526 98 1342 8 1454 83 1221
5327 -0.36529312223998656 1.9081501364479114 2.1709041114652869 100 165 80 0.24209152688744898 54 1549 98 1356 32 1292 8 1395 45 827
5328 -0.28651285977282903 0.8480764504579833 2.1959718799156298 76 138 69 1.3257963875440377 54 1249 98 1366 32 1224 8 1342
5329 -0.31030746713617269 1.9320721253962236 2.1687736025028235 86 156 74 0.076920725329963469 54 1559 98 1367
5330 -0.28271313626900152 1.798517273785337 2.1857746869305923 121 151 80 0.057268133560922377 54 1565 98 1372
5331 -0.27797533206916408 1.3583411697958583 2.4121293168757405 51 98 44 0.22148980289280135 64 1637 98 1373 8 1487 77 1007
5332 -0.21399456395519439 1.1615491431528253 2.5140053669570448 116 114 61 0.49550217302975957 54 1725 64 1611 98 1384
5334 -0.097997470321136718 2.0774402372418632 2.1331293689197648 95 173 81 0.39998177925077744 54 1587 98 1399 32 1291 77 991
5335 -0.013755070863707732 0.64620887082821776 1.6940997044692565 156 161 113 0.51168545058546178 54 1752 98 1401 32 1444 8 1526
5336 0.0093573018803427416 2.1232447930042055 2.1370797953476606 89 167 78 0.15387811904270576 64 1777 98 1412 54 1600
5337 -0.0062253549596901657 1.5216087784446355 2.3335721316331881 122 120 74 0.14845853582776769 75 1952 98 1413
5338 0.01633489294762806 1.6299859205381948 2.2829252268928721 43 78 40 0.20714433941711924 12 1612 98 1416 32 1363 8 1432 45 1113 30 923 51 1025 69 714
5339 0.072557601693002599 1.3213169549643613 2.4581851414108984 118 125 74 0.075083877771807486 34 1593 98 1426 32 1415
5341 0.18092736834415088 0.63509295053319381 1.6033210844581567 62 124 70 0.28625147140883628 54 1782 98 1441 8 1523
5342 0.20461187074731579 2.3959942721341165 2.2594936197304127 0 0 0 0.16080303454860698 54 1635 64 1797 98 1446
5343 0.18105072307631448 1.3508301813460781 2.4661155628261366 45 93 50 0.25310961339313476 63 1764 64 1677 98 1448
5344 0.34413524904618548 1.2182793674706396 2.3784979427460695 73 145 77 0.59090634793543095 54 1653 64 1676 98 1470
5345 -0.68125068740686223 1.6412716791909849 2.3171823134241607 190 190 105 0.23908800256662369 12 1545 98 1503 32 1488 8 1582 30 885
5346 -0.59408831118911709 1.2650452788173998 2.5197003828046336 176 155 86 0.13651329347480484 4 1838 98 1512
5347 -0.51615652109789179 1.2386518073605377 2.5221281015402992 61 113 50 0.65700367886525357 17 1925 54 1695 98 1518 41 1620 9 1245 19 1423 93 1174 71 985 25 614 79 511 90 599 59 2047 16 612
5348 -0.4970733735199484 1.1543577389250792 2.5842348482044395 61 109 47 0.5969472703105918 97 2036 98 1521 77 1134
5350 -0.44268887883460056 1.3203488847542528 2.4528049231395546 65 109 50 0.40388358600614893 54 1704 98 1525 32 1527 8 1621 45 1289 41 1514 9 1232 93 1166 30 1060 51 1128 37 681 5 659
5351 -0.40712790805984739 1.7282955956246897 2.222882324343098 81 136 67 0.24203326863707333 54 1705 98 1527 64 1982 32 1490 45 1232
5352 -0.52831720331828613 1.8767209357793238 2.2080854544464419 69 115 59 0.11559221728419015 84 2454 100 2165 61 2383
5355 -0.25955947985371841 2.0809043823810836 2.1417463710302131 82 143 77 0.30181464127177055 75 2215 87 2208 60 2131
5356 -0.11521328752088932 1.9393526495864912 2.1583997059023963 253 244 152 0.25294586475924974 54 1740 98 1567 32 1489 8 1552 45 1214 77 1131 30 866 51 1117 49 919 36 701 69 675
5357 -0.25261124985251715 2.0516882753743158 2.1437976847030802 243 233 156 0.1117812840573657 34 2299 38 2347 44 2217
5359 -0.0089360470131780983 0.5017005556201779 1.541167014729351 90 76 58 0.24567240389477299 54 1753 64 1805 98 1570
5360 -0.0075645834358590604 0.50180596112984666 1.5456566285241111 90 76 58 0.70859012090217988 54 1754 64 1806 98 1571 32 1455 8 1533
5361 -0.072959033626564765 1.9737664168149629 2.1513839137702315 71 131 62 0.065448654211713697 54 1746 64 1931 98 1574
5363 0.11494960830912117 2.0395520447893065 2.1547080487058601 251 246 157 0.19240211469327617 12 1817 98 1593 83 1741 77 1026
5364 0.17741047292133061 0.51609436398707631 1.4735990543505277 228 185 122 0.75468829418662431 54 1783 64 1815 98 1595 32 1648 8 1705
5366 0.35426949889307974 1.2424321052895979 2.3562632673057031 177 184 197 0.066814803282913351 54 1864 64 1976 98 1629
5368 -0.13426188292176758 2.007715536087737 2.144064556321609 206 210 127 0.60235698918289871 64 2001 98 1662 83 1815 46 1418
5369 -0.066009413304674788 1.1720283758519281 2.5468568762003567 43 81 38 0.369271572942443 54 1842 64 1952 98 1665
5371 -0.76411273265166946 1.7129510498269163 2.3137823565712035 0 0 0 0.80361819961554681 34 2491 35 2434 75 2358 54 1880
5372 -0.45414429467953826 1.4912456231722226 2.3501468923323259 176 171 98 1.2960468546222201 63 2254 81 2609 98 1717 32 1668 50 2248 45 1392 49 1221
5374 -0.2737939686225857 1.693205965028274 2.2368570068742684 133 144 83 0.43303815215996372 4 2062 98 1725 8 1719
5376 -0.13594811621319033 1.4161401910716207 2.367966996010979 95 108 58 0.10866650133991601 63 2242 98 1731 30 1175
5377 0.028036791287028216 2.002791070353819 2.1172514829288995 119 152 78 0.84129676772107886 54 1902 97 2296 98 1735 32 1658 64 2044
5378 -0.53231147707956472 1.3893115636972619 2.455160201076025 117 128 69 1.1730469262449403 54 1936 98 1758 32 1695
5379 0.058716039833509731 1.502573672496329 2.3667464563556289 42 87 45 1.4262930638618958 54 1905 64 2027 98 1768 32 1703 50 2286 76 2337 45 1388 77 1310 30 1203 51 1309
5381 -0.49566860793915374 1.2982521740691608 2.4706184455411435 183 157 91 0.55257058198890219 54 1956 32 1734 8 1799 64 2083 98 1777 63 2345 30 1232 51 1327 77 1319
5382 -0.3463335324634142 1.5728190551012315 2.3258544657829407 65 107 53 0.79866108562073579 54 1999 64 2137 98 1819 32 1773 8 1843
5383 -0.34762368867576082 1.5789786544949913 2.3392126181822359 65 107 53 0.74053331040032611 54 2000 64 2138 98 1820 32 1774 8 1842 81 2777
5384 0.18703660111634257 0.68955389135527279 1.6182838208150738 152 173 116 1.0096804528469654 54 2035 64 2115 98 1859 32 1809 8 1864
5385 0.33687508074830919 1.3656443569912433 2.5031728155373889 65 101 53 0.1790550490004523 54 2043 64 2147 98 1864
5387 -0.2162203684663086 1.1257278407259639 2.5831897495135845 50 86 38 0.4469702383356482 17 871 12 810 98 1110 75 2117 35 2201 59 2029 17 1361 64 1267 81 1679 54 1278 100 404 63 1498 87 1070 84 1744 57 1602 57 1931 32 1426 8 1511 50 1551 83 185 41 1112 9 924 88 132 79 589 13 455 22 412 47 446 58 215 89 342 24 339 95 230 10 208 39 338 67 389 86 364 85 178
5388 -0.09165142137239661 1.6519218698510139 2.2577305944202508 74 114 61 0.17402734346724463 64 465 35 537 54 357 98 267 63 428 57 428 32 232 8 218 77 181 17 470
5389 -0.064448206205798442 1.5534326677335228 2.3077645305161858 40 56 30 0.11921853669026018 34 457 63 399 98 275 57 398 97 483 8 261 45 192 49 179
5390 0.029301740708515048 1.7337624206159428 2.2376726084284289 56 101 54 0.15997299444989471 4 567 17 526 97 587 63 390 98 320 64 540 35 591 32 230 8 165 83 422 40 314 77 208 30 125 51 169 75 599 49 118
5392 0.12905866354156934 1.8056134619249598 2.2253459456376414 35 61 30 0.11865654898713607 4 609 34 588 98 374 75 657 81 503 8 126 30 111 51 197
5394 0.21852402715725835 1.4051001054441088 2.4387911252958827 27 55 29 0.23680617424902772 4 984 54 1006 98 893 17 344 64 988 8 870 45 656
5395 -0.56456940738698935 0.99767516104210907 2.0432999706331665 64 112 60 0.23972216406100733 4 1255 17 1341 97 1422 64 1226 81 1681 54 1174 63 1589 84 1187 57 1674 98 996 34 973 75 949 35 1030 12 713 59 1046 38 1022 32 1134 8 1313 30 760 49 617 45 1031 77 728 51 766 69 599 62 368
5396 -0.067406913588587344 1.8006911587810102 2.201281269450801 226 210 132 0.26090435151239577 97 1622 64 1495 63 1535 4 1506 98 1137 34 1743 17 1549 75 1696 35 1747 54 1326 8 1106 83 1328 12 1366
5397 -0.15518081399257988 1.727017021309645 2.2196951675282102 67 111 61 0.19792023831753233 34 2064 59 2105 98 1389 4 1725 97 1909 35 2060
5399 0.086000952132401734 1.8054173082455358 2.2174431445091658 99 126 70 0.17317308142236224 4 1755 17 1824 97 1921 12 1633 98 1424 34 2075 81 2156 59 2110 64 1748 75 1999 35 2076 54 1614 63 1800 84 1793 57 1555 8 1405 50 1471 83 1572 77 1036 51 1019 45 829 69 573
5401 0.19915321203461961 2.0586647114458136 2.1672952901414679 89 119 68 1.0881455172389625 4 2135 34 2544 97 2373 75 2464 12 2023 59 2611 38 2543 100 2406 98 1796 63 2290 84 2686 83 1989
5402 -0.52865866218670443 0.98417167836981967 2.0677492562310222 160 197 119 1.8942940616973936 4 1602 97 1786 64 1228 81 1673 54 1512 63 1155 98 1330 4 1825 17 1908 97 2022 64 1811 75 2104 35 2185 12 1699 98 1507 32 1387 32 1541 8 1314 8 1632 83 1641 100 2126 30 762 51 1109 77 1214 69 716
5403 -0.034350386230048671 1.4083749982446783 2.3891626631404961 68 96 51 0.035006817432262242 54 379 98 301 51 252
5404 0.51459387638332721 0.82905711419942552 1.6290449317668865 231 233 249 0.18243848035278531 54 682 98 587 32 571 8 473
5405 0.10101581475561618 1.5766706654923603 2.3174331895369154 43 84 43 0.058700493093442635 4 1456 98 1182 32 1139
5406 -0.10148678909128597 1.6844226572937901 2.2444744849350164 180 174 107 0.23709303368662263 75 2177 98 1569
5407 0.059731422784164739 1.4935355444367779 2.3535201335918741 42 87 45 0.74466416043830674 54 1904 64 2026 98 1767 32 1704 8 1725 33 1894 45 1389 41 1583 9 1291 77 1309 30 1204 51 1308
5412 -0.5622358246724376 2.1250350546052763 2.1882347046672126 200 197 118 0.27860017168055357 98 87 32 0 8 47 54 757 9 174 45 48
5413 -0.44832705945787199 2.1985231644274399 2.1894846363164517 72 119 52 0.78364157552762814 98 131 32 2 8 26 93 150 45 38
5414 -0.49526351097255888 2.060846698322369 2.1724784939717408 197 201 124 0.20055791938554343 17 1204 32 13 8 57
5415 -0.916668466008701 1.8446837426819251 2.3126626261221181 141 175 94 0.27517315997881492 98 5 32 14 8 752 51 0 36 186
5416 -0.19929772539528282 2.2361882361680432 2.1382378658867514 74 126 54 0.75944113542627778 64 695 32 16 33 254 33 255
5417 -0.1331252534504852 2.1311671523072069 2.1354884171843835 223 218 143 0.056674416609656303 59 1375 32 32
5419 0.19522510259855846 2.2135485930701244 2.1435089615796752 91 161 72 0.070351705746495116 4 747 54 513 32 68
5422 -0.86241038762119859 1.472013769806009 2.3488551680261223 123 92 62 0.18157006673565892 64 176 32 100 8 862
5423 0.05594957027492329 1.9989855731361281 2.157697627749954 69 120 56 0.0022182395181355747 75 732 32 105
5426 0.28508379579562459 2.1710362390800886 2.1856660051629331 87 126 54 0.15215789096576321 57 300 32 111
5427 0.25244202985740677 2.1436773488466874 2.180474043062004 61 101 54 0.53939897637471268 54 540 32 115 83 1077 7 1018 78 1159 70 595
5428 0.039274454379218442 1.9740475325019275 2.1581449350557524 71 119 55 0.069715995776322551 35 737 32 117
5429 -0.4885925485843754 1.6319704274574922 2.2840924761138468 229 210 124 0.028400759309504763 17 439 54 126 32 135
5432 -0.21200304615381871 1.7515360229693377 2.2077895086699639 237 218 138 0.1496887934279319 12 390 54 293 98 220 32 147
5434 -0.13719796159023048 1.7723270168859286 2.2083933851408712 59 99 52 0.21636978568065024 64 525 75 603 32 153 77 140 12 436 30 69
5436 -0.27934760648449319 1.6657230323648948 2.2476712957874794 54 93 50 0.046228440341600896 57 549 32 167
5437 -0.63034743636779456 1.4887851099853611 2.3807333221658951 83 143 63 0.10978893755402236 98 65 32 170 30 134 69 89
5438 -0.52457507490504274 1.5230385629188363 2.3411906463411714 220 202 121 0.10400391092344978 34 446 32 172 49 224
5439 -0.24946888175039894 1.6625083858075862 2.2479512662035153 58 97 53 0.064013438003159187 81 529 32 175
5440 -0.49935007346384969 1.5314015303522652 2.3334739897605985 228 209 126 0.071279970823766303 12 218 32 176
